ply
format ascii 1.0
element vertex 778
property float x
property float y
property float z
end_header
-0.23395564651842035 -0.12063140535574028 -0.19896899111776892
-0.006189728927575732 -0.2068168278402465 0.02818113182089339
0.1773136797017827 -0.041599019032456955 -0.16622732953434138
-0.10262992368808582 0.12019929183459534 -0.2737766883095136
0.20319899403421796 -0.1281766390346867 -0.22415931627194347
-0.05723225113096818 -0.07905855465283461 -0.25233503415921466
-0.010230798208076099 -0.04998533406217577 0.2564091602301533
0.03851408833146833 -0.02133335186166237 0.16319268747681503
0.14078608998506553 -0.08445962256532429 0.0764670051721134
-0.10044273496634393 -0.2195414669037459 -0.23724638262735362
0.015631461746542397 -0.008927516918421814 0.190323381565299
0.11871410985193358 0.08737915856814203 -0.06029770740745019
0.17219272019962356 -0.12292747174808945 -0.06849617124218746
0.0876956514694569 -0.03174750569979966 -0.2074870312192841
-0.20749833953844105 -0.15991700888479476 -0.13188791241717085
0.12960288059812253 -0.21355882164070691 -0.22225316134362463
0.02668893354369247 0.28005390838185606 -0.21711976631329238
-0.1375724901419819 -0.17636102142167523 -0.22602543388790863
-0.1316627584673625 0.23693129356972106 -0.11235523004283382
-0.20647060236095027 0.06695945591143962 -0.23392331685779272
0.1071213251988427 0.1707253495916923 -0.026565012479228253
-0.13657755796355198 0.23174864896619624 -0.07377845163271679
0.09807564094714556 -0.07422327432378022 0.03284058044847598
-0.024428352535693157 -0.1637767913059074 0.2674043209092933
-0.21547714371790783 0.007154408307793253 -0.20221338619957474
-0.199457894392995 -0.08935464994341749 0.002149142475565101
0.022343054430575382 0.10791806830264719 0.058706076874877736
0.04868547168686118 -0.04393629204189925 0.16341424679320132
-0.14370364194239904 -0.20882383562950493 0.10978970050920195
-0.1512732398279577 -0.0668404664672517 -0.2707453347124634
0.24328490247069975 -0.1467547651835314 -0.23739289957835147
-0.18191587155341815 -0.05797330413528965 -0.12319348757746959
-0.13983141349094627 -0.009534797866228614 0.1852061350851348
0.09798591187230486 0.21900948678844553 -0.0714764971834011
0.09212728992506257 -0.1690810725116463 -0.13061168018321384
0.15152074725094222 -0.08298756363585824 -0.14136684844443598
-0.020405837098034216 0.2042678352895524 0.037050444590695175
-0.0871704772268598 -0.16712181518207186 0.2543591960114184
0.06853162390715714 0.19769350769872446 -0.26355372263247573
0.10064085570349365 0.11460941349568464 -0.26920266461085446
0.10818589650729722 0.03265603430055245 -0.0885126922672621
-0.08497656566264264 -0.04112558095119757 -0.263586411079443
-0.26633064692958436 -0.2177951873823601 -0.2056740425852988
-0.153418032310889 0.20305733832047107 -0.03866246663403979
0.22516887778659483 -0.08331858785592365 -0.27082617358662053
0.1566181212709678 -0.08973031272152594 -0.1434667795455945
-0.032676848232378146 0.01649933231927411 0.13915458884846904
-0.22715534004750468 -0.14565474636997566 -0.2559092368970549
-0.1775513378824337 -0.05117840722934884 -0.11712771522789922
-0.2371231811075438 -0.2308581077650862 -0.1967069176057044
0.08302914525587063 -0.18118047928754777 0.11896589435410193
-0.15321671099425532 0.007518540928610101 -0.015399033422067093
0.10368919378151356 -0.08652479490015379 -0.017100606240897938
0.22581642341405306 0.0016805918127017062 -0.2520225040159173
0.13778300455180406 0.12987286374214616 -0.23120578368687886
-0.0017433135963538643 -0.20293369372483622 0.24018117994776764
-0.20335803657616564 -0.14515349860848867 -0.2510833933543314
-0.05701209161302585 -0.25765000239935343 0.19539115618372097
0.27180921276814035 -0.08116533892552809 -0.24185727681570648
-0.1202186382619747 0.10938999055814248 -0.2729526413737207
-0.035906033346458595 0.23536901645734093 0.010684071222651187
-0.07526256885248148 -0.2952475932339947 0.12892201696608435
-0.11599829129538963 -0.22874811560268296 0.16145099914180802
-0.00566066961530151 -0.1381506477859856 -0.07619381538849704
-0.07979840618604447 -0.020567623932617993 0.23125320317354767
-0.004861506281137391 0.1529958003558074 0.05868239107796832
0.2629195637250175 -0.1419412997289757 -0.22168045266900674
-0.09255057067241879 -0.22409827655672376 0.20760326424823805
-0.1557476259875555 0.14503531736473685 -0.2697866013565075
-0.022430678448322288 -0.17123301588287343 -0.25174639251872954
-0.1480466488882757 -0.17911245758077085 -0.12382770810814847
-0.09356187894674803 -0.14204674310789756 -0.15846954449308234
0.06216180924009353 -0.06949788102295605 -0.1773826551097208
0.04070640159505694 0.2655116945751773 -0.2187987159384271
-0.19964652533282834 0.0926316113757219 -0.23794946337341225
-0.20155352359708065 0.1435071304362997 -0.13631217598292375
-0.08948209520122817 0.13352382631684867 -0.27423424689429593
0.058591762074015404 0.1592740062919218 0.027024481075446218
-0.21429518404734016 0.0020038592208059414 -0.20909804186106323
-0.06329994435252635 -0.05402823119044009 0.2619599991610823
-0.08174824551992631 -0.1512223187736806 -0.08463035897760943
-0.1745353244414402 -0.05302581207000248 0.019355980502486148
0.11966218820946636 0.06159281490027282 -0.08513310315386524
-0.026055066617013595 -0.15237156253224343 -0.012274703273193924
0.1735006114306804 0.06271894875458148 -0.16422964766957568
0.11433522165286861 0.21011200757207565 -0.1295548760324392
-0.005658513000383027 -0.27749340109753956 0.05042626063284801
0.18110913387637012 -0.03796822908406688 -0.2728399054231823
0.08545932060582462 -0.05182041638123531 0.1035069430466875
0.006599291737860296 -0.2858917585581273 0.07273699007335664
-0.05917927753423065 0.014468871287999027 0.13217513451332694
0.14505986926694694 -0.07390842573202797 0.038652147546617735
0.007787192331501288 0.2943768646817137 -0.21422362724196958
-0.19319150711194616 -0.10109561291676011 0.060252597883588915
-0.22758574866172815 -0.038522251178392405 0.014848068033497504
-0.08854154870250126 -0.21253800499623243 -0.26398245675393095
0.09208139642291156 0.23160072293032988 -0.11681841619640876
-0.08551093566596404 -0.2095626649618639 -0.19740499797094482
-0.12137011332689356 0.12818504969559094 -0.27236189708817554
-0.1358102283018384 0.2316321806396203 -0.15506365169623532
0.003424278990212523 0.1219329831784912 0.06403699194367168
0.15125656717885996 -0.11199581075933233 0.0583215962928373
-0.1811904251509642 -0.01982270068528565 -0.11238970314278438
0.10405832925311419 0.17390812819095602 -0.02375287778215077
0.07976270997766308 -0.03587811513117024 0.04281901229710244
0.13943103650021782 -0.16041049829235587 -0.06535260242216252
-0.038565260265743834 -0.21162346072416682 -0.23426055013956468
0.0049246765286143305 0.018497827299035874 -0.2690482933335339
-0.23193243535322391 -0.2212990701657984 -0.18895479439001078
0.10424958082692436 0.16634743474893687 -0.24991428695988172
-0.15936378276903682 -0.1518307798869716 0.05487209652521375
-0.1209049964280101 -0.07660091077394898 -0.1579707835381714
-0.07547477125397566 0.0775155127776867 0.07004578406876386
0.11054411912202551 0.21477711407264272 -0.12630899963697698
-0.12023509533455189 -0.2232749450730652 0.15741918977431554
-0.1545835738669303 -0.13630700428111428 -0.2467501978187384
0.19136002991438406 -0.10229485353716482 -0.18301604607623773
0.0806444074503784 0.08403895203770927 0.018563195869616033
-5.954353967037762e-05 0.19735395034092923 0.03631614117151273
0.1371826321012293 -0.1698402170277848 -0.013151376197530401
0.027809024986322185 0.27991097688966 -0.21492125941623572
0.044546244636559006 -0.03999232164361639 0.14405100638218454
0.1644014618935695 0.029727005719166796 -0.15343974783342385
0.014232256318979689 0.23766877728647834 -0.2652937803601698
-0.12681787667663622 -0.13886555583732246 0.20252007253609802
-0.15243868163351237 -0.0403973402462828 -0.1276702293758271
-0.16772263627413384 0.20770173891260313 -0.10847440391512127
-0.10222464573119787 -0.17331425429982386 -0.17772428770302198
-0.05387158842742856 -0.096809587422217 -0.1616832956948775
-0.16555334982163872 -0.21549245931458905 -0.23405085796462263
0.18886811976184376 -0.107155488002441 -0.26372976662364167
0.08719926627341051 -0.013021128953986865 0.06744559358458614
0.023984224314408532 -0.08111443219335157 -0.18926922134676918
0.08621776029344255 -0.03091408184275541 -0.018630636903250185
0.116906509307863 0.15027721060538138 -0.24341913460965842
0.11589431699485937 0.0423745247678201 -0.10376740399152051
-0.04742551674196794 0.01751187797725479 0.12447981989264412
-0.04609991271258958 0.30022587467770945 -0.16339425925983658
-0.06893930893758099 -0.12181035647653266 -0.16709526114021409
0.1918041938314621 -0.1802877573461969 -0.26767065450832783
-0.1354108426283406 0.2266086391327021 -0.051412777277655614
0.12152070152554845 -0.1906109628402044 -0.26724717494761135
-0.07677712208458848 0.050695183486373856 -0.276270729562899
0.11765427307971227 0.20456287707210577 -0.14284830084982952
0.16127052709272557 -0.1774143877348188 -0.08253885457204933
0.06872705325537107 0.08821068487989378 0.03128819056002291
-0.11274023530726301 -0.004283613394657502 0.16903617517469952
-0.11178818537901496 0.2481921919579381 -0.12360773839561061
-0.1967698360776108 -0.24124462196436572 -0.249325062899481
-0.17127191727662333 -0.07852538462702986 -0.03451127788569619
-0.14442550454759168 -0.13840005077068487 -0.03915614235937225
0.12651037141389623 -0.09151284397635034 -0.07007147431501694
-0.19865432567926852 -0.24174890461301182 -0.21158021632900784
-0.24809262158489642 -0.09349896761582176 -0.0026650280082942375
0.07105917939598275 -0.10371108533054132 0.01712363459163214
-0.25647406660891886 -0.11663164980340403 -0.0490671861470585
-0.21493479470726434 -0.005154543672740533 -0.18600883109022082
-0.1423037694432967 -0.15930904349678443 0.1529635512801358
0.16388439821640274 -0.09373739045835269 -0.15170063266918016
-0.15581672362796514 -0.19333334867935445 0.0904750129909819
-0.18054746324289603 0.18584081630791507 -0.1697105810281905
0.14794798883693422 -0.06658241131533642 0.0037380342486582775
0.14997655970435286 -0.142366376048378 -0.11654195179989665
0.1397994677861996 0.15194161200073444 -0.16691869591066605
0.17077251042675012 0.012408621214474093 -0.27302586441384363
0.08147376171199845 -0.03691205342706283 -0.1577120127468715
0.06439478311047722 -0.21464305119638252 0.09573889330833209
-0.041317775641662426 -0.0009280655844127956 0.20356718160505854
-0.024941901449355434 -0.06537369941478874 -0.2375819614950488
-0.10297785662429909 -0.2020563699636571 0.21842440851283826
0.14684588472871518 -0.07508428974350748 0.03184760387512924
0.07986652283563998 0.058580802122729855 -0.2726902283383668
0.21318076942140252 0.028040836196746896 -0.2104077992845423
-0.20366648477450341 0.03110340065837132 -0.09870187398237712
-0.08602039533662681 -0.23905133237598283 0.19716653240819507
-0.15120859153814303 -0.12926819783052204 0.14583232023290466
-0.13281751584545973 -0.0054641745981895 0.02888309034406111
-0.06797943109907864 0.1340662660897076 -0.2755121654732988
0.04307180071795435 0.04452458716011647 -0.2724611390257157
0.12956783612250825 -0.055976980066646975 -0.24155144318567465
-0.15710258891392095 -0.17993935958213703 0.12023462207706027
-0.1327003334845246 -0.1449002779652458 0.1777617593091097
-0.2482865536121633 -0.17663632065155205 -0.1784485143662749
-0.2332242323195863 -0.19093480900617482 -0.2701736791080607
0.17791495303023677 -0.09526263826611367 -0.17040243429317406
0.06614991523465547 0.22215193553179632 -0.24034557089574157
-0.03590254129781019 0.22575420173472555 -0.27087245890230227
-0.029484973201227817 0.03451706064257571 -0.27533022542954794
0.17127134872468325 0.08384842778699239 -0.17011255085569404
0.11601744900591399 0.05920225634660984 -0.07687522072188534
-0.1127123842331131 -0.19214975735460219 0.036765471469252374
0.15085555535416362 -0.05288677527731177 -0.07277420045631754
-0.15085433046541516 0.22069955797230453 -0.1973669269468811
0.20501024869826606 -0.18264467974859838 -0.21618095179479607
-0.028933125541203374 -0.14796936070259706 -0.2134684634858083
-0.23267141390841753 -0.13123207257345473 -0.2351370553899965
-0.04681666227687964 0.2891904424555816 -0.24176363463950987
-0.06830422051756906 -0.23461552406671887 0.21343137632682674
-0.20544344703089762 0.12544916179203636 -0.11068376008329031
-0.019595658591492704 -0.26651267687185226 0.17647274170935912
0.16391443655256158 -0.16477497965497892 0.020833973955272197
-0.21611001555439743 -0.03673618142823346 0.05628957571740294
-0.0485416557889934 0.2444352369290962 -0.002299812110869398
-0.08298846171693684 -0.05150502146535605 0.25694307516074366
-0.245511169416759 -0.05746165755720113 -0.06272520188117492
-0.0356912869894877 -0.1456906635176777 -0.2614816936671544
-0.11736206773277898 -0.17032292689627984 0.19326041554186757
0.04360272765420299 -0.2092245896306452 0.14956308567918047
0.07444320619019575 -0.20326797376590025 0.08097245901324751
-0.25140573165362756 -0.1052923370589479 -0.006176427536404046
0.23596896330286712 -0.08529773779479632 -0.1703308046168085
0.060882930027331535 -0.19671302719492584 0.13874375289634586
-0.07780194871918139 0.22668947163732645 0.007379337296842593
-0.042167385356129565 -0.000253256045349737 0.20211671074572823
0.14964649371087174 -0.21041514445845194 -0.256514881269406
0.15635659027714355 -0.16134815831700014 0.048813622130275916
-0.15377292463948794 -0.08006399763409938 0.14849620145520306
-0.18603863217140915 0.17781854657196727 -0.15617844590476543
-0.14036610764799126 -0.12214032499165728 0.19486686905016304
0.08963439274166704 -0.15677356066775794 0.07540303324444203
0.25618875529737817 -0.06835688936429274 -0.2573141670260307
0.03409827616884437 -0.18529471623188196 0.18320004865914957
-0.19592905671485508 0.029242614432113404 -0.2517624436834083
-0.15694857437609358 -0.2117589972511609 -0.21149954444199445
-0.16597990071820992 -0.14321000052126323 0.11688657648642546
-0.18714020204545706 0.17719590389740697 -0.10551968745697562
0.06421965770314086 -0.1075787836660469 0.027902820280740852
-0.023187644458864908 0.17817380952580159 -0.27450465999350193
0.1536266746394046 -0.12858453668083056 0.05650713024489985
-0.2139648662165864 -0.12408716077064604 0.025348993517691425
-0.13198893875086545 0.21224035451976456 -0.26631409430080255
0.08926405480896417 -0.1316296060273738 -0.04693036837890445
-0.1410227649859202 -0.17256240585169555 0.04301155608884688
-0.029520138331192304 0.06709270304246533 0.07921803780604174
-0.19837932866507077 0.0024734212882438194 0.012838128084495649
0.06475575756562572 -0.13821206438520248 0.1681130125999547
-0.08946697108065776 0.2715233988490067 -0.2208855773326826
0.16175973024489376 -0.17243602470678257 -0.09846292730162835
-0.06663383023271634 -0.1837958924672834 0.019549149469536183
-0.13587744959644005 -0.06511458215647092 0.11828250117980756
0.10894729172483843 -0.06580039429429158 -0.01999223227590545
0.15416160237023488 -0.17168732076548443 0.042042157412748284
-0.13416151243927288 0.215143979968246 -0.2629121811999611
-0.25120759475585286 -0.11355646803252359 -0.10117617716981417
0.12633484252210342 -0.09214886428180337 -0.07477423911077605
0.12103574210884098 -0.1502302325448998 0.07840405446061044
-0.1977383843526021 0.006668278102339853 -0.057511534943393894
0.031758566047940716 -0.01395461966736069 0.16606072432007926
0.009615178113609534 -0.18340407095745737 0.24597415492315192
0.098045428739595 -0.07685002495527384 -0.21114468553066607
-0.06264830496180121 -0.16322155880881103 0.010232996909838648
0.0425337218892827 0.014900740168213017 0.064946255334851
-0.14389231709462916 -0.07783646474479707 -0.27077508157002633
0.13787425524869548 0.16106138790239988 -0.13475839861124306
-0.1353298919771678 -0.1045832573066492 0.054512335000532305
0.09748068657204455 -0.004685802508090024 -0.05593129603577172
-0.18050132324178533 0.18944133238327757 -0.10410889335066476
-0.1545431851000089 0.21606610269747792 -0.07381254772626658
-0.06687990474030993 -0.13547251948916667 -0.2759219985604882
0.15989810295783868 -0.18081563267509976 -0.0690172822945803
0.10586612847692212 0.21699075721357172 -0.09508270396276963
0.13383080307506093 -0.191060389793197 -0.1885523523210908
0.21782258327374993 0.007232147147603342 -0.25902474115609664
-0.01013659060462979 0.27740661903764796 -0.2556671412614545
0.08967220388536018 -0.044693153405998505 0.1865288761395085
0.028093323417026944 -0.16079715250005058 0.017851528532564512
-0.13097291290250063 -0.12977521385625682 0.22268166225792999
0.09685659895972015 0.17749148622209482 -0.25242595797948336
0.00782668515581049 -0.2630782945237648 0.14702113750243187
-0.15815137667078635 0.11316357934111515 0.011664372678536972
-0.15747255326694348 -0.050699339085349175 -0.27069177251391324
-0.21403055478070682 -0.005703411330647354 -0.20720316227970323
0.023640267865176066 -0.20752970142353094 0.19206764714151014
-0.14419658423251858 -0.021927566325911436 -0.2708017263069699
0.15763697234001364 -0.0970947966684468 -0.13951931361172032
-0.21944300532354252 -0.058715459047585135 -0.12145545842020124
0.06840162332455771 -0.0014470573392095828 -0.2498216684634289
-0.13044714657740109 -0.0037365056748824427 0.16459323579041993
-0.09137985869415569 -0.11811562765296733 -0.27547610285021484
-0.0872945444325527 0.2388307636080903 -0.014786408586480174
0.20608690074921124 0.04125193272007774 -0.21599729925557914
-0.1759582355375606 0.08333989816585578 -0.021028180911358177
0.12249310889604291 -0.032695601289969956 -0.010845167042472832
0.0069297666292363795 -0.034863227857517415 0.2366033953349276
0.08849371424503677 -0.06283739511353081 0.11296712280620429
0.10912760421313053 -0.03682601634999475 -0.069487796761174
0.11722310324517862 -0.08943018469199944 -0.04749653682547755
0.17884649664929927 -0.11998246913135877 -0.11278383273506701
0.056562433070102267 -0.058769475484324464 -0.17521686481684318
-0.011858644094541156 0.2490247698515597 -0.27035185883512536
-0.10823943046248245 0.18964272976192714 0.022210141408727166
-0.2086453274751619 -0.10683152640196802 -0.009389253610556947
0.0013816374677877992 0.17502489940810456 0.04810995019320723
0.05524752387432652 -0.149831813793652 -0.0889531282371608
0.030724745740032974 -0.1212471640004294 0.2650076580576624
-0.19106402970641292 0.05704196307338628 -0.25473576095890094
0.19305264712659867 0.010471059430901599 -0.170098247221581
-0.09028808605499274 -0.19448730585060117 0.02931066913498272
0.040194314331311716 0.13288168084756907 0.045545118927532165
-0.24754067095675764 -0.05258593815260698 -0.08744439482674797
-0.049091742523273176 -0.12354709234346085 -0.11222505725514728
0.20049507747765086 0.0429931913830212 -0.1980156273306025
-0.12384135110243251 0.2348223883938205 -0.24516090887989797
0.09927901500673451 -0.12386809561815185 0.20618670124740932
-0.036499149849329 -0.1762512753680006 0.2656022839999753
-0.05751716832625121 -0.09570051472871073 0.2751277154807986
-0.17756288778032586 0.038034141043931456 -0.04440710698293429
0.17131597221285463 -0.07621214007483507 -0.18119143457522588
-0.20327835076385714 -0.04880777865887716 0.12315497542783103
-0.14104604497513215 -0.06980822865554315 0.005579945299694822
0.12210104172852451 -0.07075563541098713 0.1299966491375745
-0.1777722466704274 -0.10649219906347134 0.18708886613737435
0.10225056022202307 0.019552622565220844 -0.05583566443182535
-0.26285493452946507 -0.16688905230256798 -0.24862861426921484
-0.1935598149712178 0.15978853388217112 -0.16467730621963894
-0.23347727320240377 -0.12966877868918308 -0.2313175518553888
-0.06999018757023359 -0.15074563369772498 -0.038134425168514806
-0.08589216538719775 -0.21712710876317096 -0.206779885111066
0.1277464913478126 0.0804610726445041 -0.08912401836742155
0.03294035416884477 0.2633253086338807 -0.07642064769213844
-0.18221637388682227 -0.003710108516200305 0.09561449332228814
-0.056434666733974216 -0.19855747780105795 -0.19164254773395467
0.12273115739639846 0.19715097210153804 -0.11797290465354601
0.0081747065016516 0.16049795367120706 -0.27515237842760343
-0.23091254193384098 -0.13434033429384962 0.030352853426732156
-0.20450829810112806 -0.12208629812360501 0.10562399300771354
-0.08603809346024612 0.021095769355677828 0.07958318526484891
0.005111480865339613 -0.28730193092197875 0.07382924118003177
-0.12833573387991337 -0.08139663133350361 -0.15692197472220631
0.023067112896995912 -0.08348574838556012 -0.1836706517031193
0.2100938378893942 0.02277927714734018 -0.2547758025261591
-0.00323077280682175 0.006292446977350666 0.1654865656923564
0.02784054151841479 0.23725849534932594 -0.013157730587867207
0.0964937001020086 -0.06256847751356528 -0.021028081723143157
-0.17135560396058255 -0.13076727617085043 -0.23224194149241392
0.05216015699366113 0.14734008094417012 0.03504125655906602
0.1293870241404352 0.15201262616430053 -0.21847388234268586
-0.19602093305493629 -0.08603483443478287 -0.1651435948649741
0.09524744415952917 0.007382141363705077 -0.0323091244809944
0.25218541282287416 -0.09696017878946635 -0.2629381732529522
-0.18843340931610716 -0.07995440152460072 0.17691128606660364
-0.13363814981377603 -0.04311293290113065 0.1430986462888127
0.028402511963672206 0.27101320777619997 -0.10259734709549571
0.09226727883239241 -0.01193805180293909 0.0656816125537274
-0.09490358639168385 -0.2580696954182672 0.16438724953683065
-0.17060471808336442 -0.07088588641920461 0.10133873818995696
-0.19650837847873126 0.054222931987462704 -0.24990468661994455
-0.1255892695370488 -0.15272149449861186 -0.26752560655518975
-0.1401635070693395 -0.09645169347070037 0.15798704662640933
0.2148600720958469 -0.17123714474919458 -0.23222756722608212
0.2693802819727075 -0.13464113838484054 -0.23409063779578138
0.13211028431408386 -0.07321306324275541 -0.09750624243246155
-0.01530213996405561 -0.05896082379093654 -0.24546772355965787
-0.034380284440183255 -0.09706929004005051 -0.17931767819696554
0.1529310324624527 -0.09267687685027896 0.029889288623127463
-0.21396888217014234 -0.040604791156507815 0.07126990291046995
0.10055344497629404 -0.11172367440171027 -0.24480099624578314
-0.25596750365483034 -0.09942831198973878 -0.07713444845668051
0.06205033745827094 -0.14291937880858316 -0.17662350790996664
0.05679779348019868 0.04289997375706112 0.04119525493090121
-0.023354537758647754 -0.2582327957611078 0.03293116481115987
0.13985404787977365 -0.01899694561954687 -0.2699495552856449
0.11510548474171992 -0.063004380546476 0.1447871014549412
-0.06200124703471931 0.1961166878686533 0.03984678930023739
0.004280554457373878 -0.17500079928296408 0.017933097728044963
0.1352174150430875 -0.0529234699622652 -0.19226855894211686
-0.07233755241320922 0.28597841942381813 -0.21082770464614864
-0.24536016175536926 -0.15392805973554688 -0.25510285306655894
-0.19566908994317736 -0.0029031567136787494 -0.11489949836735927
0.14584640805309101 -0.14451795217971994 -0.269835671655897
0.0867172140555683 -0.08854207559625767 0.15536368984523083
-0.06895885718871281 -0.007316566392322414 0.21485198913634213
0.047465123354404434 0.03851233287915088 0.05075501519940207
0.098290885857616 -0.003345834027266217 -0.06801597456006044
-0.12565805792327242 0.16665489994473945 0.02427317287627636
-0.18512714978757894 -0.2195199902112875 -0.25988104055204686
0.13685693289742715 -0.014377113697143158 -0.15905543391750404
0.08802109548528146 0.21745042826013575 -0.21378307205203748
0.1774453862412658 -0.07052797939463079 -0.17443500236541865
-0.13156364767577955 -0.01864776726430571 0.031736731675781116
0.11454066996412948 -0.03970738229062525 -0.2524876104747975
-0.04490175169269315 0.047669058935551706 0.08206200993099161
-0.11653741977581772 0.24339449552186776 -0.16345689812025496
-0.14398880641844505 -0.11901720668741661 0.15981366402607547
-0.1844545590102401 -0.14484709498752626 -0.09311017258905609
0.13329823454503612 -0.06054956671222481 -0.15450971126342836
0.1264372677777311 -0.055764703017299036 -0.1005565245112511
-0.14120398934351133 -0.03619570895033576 0.11656645811952682
-0.11452467825295222 -0.2035796303157956 0.04121578401660031
-0.23726201028332228 -0.04981978511456548 -0.1447981824114724
-0.19828394240714378 -0.0009157910113295218 -0.24999807473883415
-0.06448820740729536 0.014059854113323889 0.12470999191059481
0.19051915551332674 0.06586609628920001 -0.22629468470739228
-0.1765790832703686 -0.04542327432853365 -0.14519852335526826
-0.20012492427373435 -0.09467613247786277 0.16081129722401766
0.15784365582516355 -0.18452094212880132 -0.04752667137868978
-0.05941257876859603 0.28127243991908357 -0.11349179937710502
-0.12206398953637014 -0.1601101120188126 0.029153407493062403
0.15447778713639138 -0.05628910290789105 -0.07936466609683222
-0.016454971203563377 -0.24899701169866398 0.19526372758738844
-0.082698720247156 -0.0987933937215589 -0.1563257076323583
0.11125114662946313 -0.09869885286823987 0.0227785072446193
-0.034484257797495386 0.15264507180141407 0.0633412950690341
0.12259683081249266 0.19693519241745358 -0.11319560586116985
-0.04473598119923932 -0.15041840951753563 -0.012963894307404834
0.012473824458679589 0.07357958922003921 -0.2760720815837751
-0.2688944760474558 -0.17781240991358024 -0.24733591789842804
0.10036549534744209 -0.03089324808701733 0.134167029732242
-0.13840638311462658 -0.208595387277503 0.06575402739194089
-0.25797571325617785 -0.1511612452799911 -0.20682182691019751
0.02192911435369317 -0.01349674893138821 -0.25533933448943097
-0.0486551062834465 -0.1586531386814598 -0.18577569014023554
0.04308677456977471 0.05689323565980739 -0.27348035701966134
0.19249831699594375 -0.1993780121923695 -0.25229873643882933
-0.14341851143251352 0.22687290409462707 -0.07644818512025939
-0.1404396428938249 -0.21051881423640353 0.11698189235898597
0.1562736431449934 -0.05322661309478774 -0.11713208069411676
0.15697866481298747 0.10908636672554309 -0.22621673227588612
-0.1883492328726467 0.17103280142943184 -0.08620854896881935
-0.018224558327804743 -0.2623842077943448 0.035110495211371544
-0.21851101517154947 0.06167476868328515 -0.15064462505235668
0.14387228248617528 -0.05606497266055732 -0.1876072007830276
0.008423120341593386 0.27800227918380466 -0.09319069034732824
-0.10721119077527794 0.2523051477192133 -0.10554929043017339
-0.1326031399769423 0.08725598604078809 -0.2723769957228854
0.05749059214225761 0.09962233597482459 -0.27436192343832616
0.11779407021693573 -0.07592946483176653 -0.0636495066040925
0.13558353216257998 -0.11346070030683722 0.12662643275285276
0.10783166966150427 -0.026985773504698492 -0.03700530990896608
-0.1449074861763444 -0.09108770538050523 0.13511708705106382
-0.2264517211363636 -0.24280620407083847 -0.25703008536312255
-0.12702591392577242 -0.1397465336791306 -0.2711662097147462
0.0882746990800234 -0.05197542382579139 -0.013482797098246799
-0.06315969887723828 0.05835749197801869 -0.277093115534483
0.06574408528666018 -0.16610304821810043 0.15479041870417565
-0.1311811066912583 -0.13046014192991467 0.22004186139333998
-0.07145900868194095 -0.07977166949794802 -0.17275563799918853
-0.2327013187925634 -0.016564723909183118 -0.10509780960786344
-0.0686218530328187 -0.2704232520415132 0.17694111337471008
0.2119547521664578 0.015011899788472663 -0.1904822942152363
-0.1417268825064689 0.05138574554882513 0.027556138723132714
-0.09542350641732839 0.07957506024488366 0.06221036876188701
-0.11922082453002204 -0.19733735923088278 -0.24536671653211833
0.10554637216007826 0.200587376343675 -0.2061224288013889
-0.04700134278753515 -0.13826739494353937 -0.07488603214234857
0.10705622490959524 0.08258021873770308 -0.030922321264441787
0.06120360939107593 -0.08991155302306406 0.14828419960915537
-0.07912637903605013 -0.14578262781675214 -0.09793453659684183
-0.17320217081302466 -0.01395253965337057 0.13698470726147477
0.06284637305211177 0.06854311364355589 0.036027471720454646
-0.09359145923879446 -0.1288233167939284 -0.16009349268253215
0.15932827295140883 -0.06789547831407003 -0.06273926636787112
-0.15623237153883215 -0.20352192381129994 -0.2299392116471137
0.16233565879359835 0.05777713071041883 -0.26949416531432696
0.060786611081303385 0.18524186438084683 0.012978871818683305
0.1474801511086545 0.004686872619664032 -0.1517831421667118
0.09459510153575607 -0.06197569189955213 0.19864594235816782
0.14079060357001782 -0.09795806878464965 -0.11444950083553124
0.059902453482578305 -0.033766710097442205 0.08113461211367533
0.15787863578279687 -0.0767469157509049 -0.17362753656069713
-0.016419581522211353 -0.03604243848453504 -0.26065001716326586
0.016308471821909042 -0.20184888054581007 0.22480708668645502
0.03980189027017468 0.20386928899082368 0.013561221961903213
0.053538769618960605 -0.15085275720154742 0.2126376995535145
-0.054109781382077976 -0.2511606633084945 0.03405642648190487
-0.26908661143698176 -0.17681563558849359 -0.24644848172375136
-0.029793825114363567 -0.0590347095861816 0.26451780169513933
-0.09187166626220371 0.27046064546872534 -0.1931148743161713
-0.12665104575919434 0.23788035630644896 -0.1750065385125433
-0.2163318305956522 -0.09872656821495891 0.12283303899140295
-0.1299416528308524 0.23694700773689065 -0.1270840997671182
-0.048574120578121126 -0.28385673915579623 0.0609809606049478
-0.17855523460199882 -0.02633573747693935 -0.12184035631315461
-0.08585730553836786 -0.1353513852557847 -0.16200313222229687
-0.05960672266497468 0.08901912819167127 -0.2769429094968464
0.10307170189483751 -0.018851677451649392 0.08729031880914315
-0.15055145569094874 -0.13045340584210724 0.050147259280177464
0.11486708820574057 -0.1245740205905333 0.07489808205432269
-0.045451542937527886 0.07298918378175728 0.07770554576718543
0.1864100036289351 -0.0380133056604779 -0.2727061132710096
-0.06343633508962165 0.19260930602889553 0.04163284943785103
0.19919317579328708 -0.11489676532004779 -0.2016357719328049
0.03898257422574607 0.20713440975763805 0.011480980822994459
-0.17614633124008136 0.011597831032285419 0.05392474547525303
-0.11614914996276908 -0.16355745390282922 0.21576792279100657
0.08665431231942225 0.06287972827398494 0.004401990624685739
0.06905346702762927 -0.1017115715342243 0.056887843939199545
0.2469334573247516 -0.10446411396706039 -0.2644013362749049
-0.1893269031384207 -0.004044565693639484 -0.10192791644315576
-0.23020601421936077 -0.24490175277897813 -0.20822979208188702
-0.1488166834554783 -0.022594525855292764 0.19301048759069392
-0.010710245039178348 0.03193032653432977 0.09282031088424686
-0.19048955325884376 0.010149158296773169 -0.09124110475800264
0.04283867456893849 0.11579209830786642 0.047308271466652056
0.01855905258119329 -0.26698581199754 0.06260378911390929
0.15063598422725014 -0.21660575123364026 -0.2204178995618614
-0.09630384894089032 0.1967237738618394 -0.2713787288825169
0.11850407241505624 -0.03285958078984208 0.06622789139895878
0.05082944366152109 0.2600285574797155 -0.2036440432145981
-0.09572916533810777 0.2589057368108788 -0.08646399606362273
-0.15970942576153865 -0.009523732781456516 -0.02929900859833934
-0.13112340696587965 0.07997760179041773 0.0402847557215235
-0.0656478303224988 -0.09095590117890183 0.27351338083943877
-0.06598295123945333 -0.14996681233166467 -0.05584568073204169
-0.15116651548916424 0.2235532247129622 -0.10945798883023591
-0.12335018895121522 -0.24463298036585523 0.12661953209686083
-0.1541474413155698 -0.016674249503766867 -0.021460299068399403
0.007495632089227867 -0.11860610100444068 0.27202302588587757
-0.04777198431613971 -0.17666138522213184 0.2653557581877382
-0.06601212257888714 0.06501299928149717 0.07380069875651657
-0.19799264690490112 0.12832133602199006 -0.07401115317534998
0.12661294519619143 -0.11269781024572482 -0.04415863258170565
0.09164320257924365 -0.023163674808776753 0.1383119423359416
-0.22569041115357302 -0.048142235073700405 -0.13673906775597316
0.11619262894537476 -0.04915061116088982 -0.05079314239609414
0.06869852487334638 -0.12673769273017216 -0.2054096948206999
-0.200902341498439 0.12766748894212132 -0.2030466418795855
0.07012061085404911 -0.1074354333679548 0.14551841705865728
0.052960744244369924 0.08959496601930306 -0.2744601451352156
0.11512443110782059 -0.04898562461599933 -0.22939988016779836
-0.024950589167053873 0.11222009591025899 0.07258153875141146
-0.1844862684225903 0.16548308318355662 -0.22374005531316077
-0.14672521861541296 0.2160089637580542 -0.04993589322050616
0.06621862661260752 -0.1545648770305712 -0.09754807135946325
-0.09152042824132373 0.07309784927746528 0.0644409706715074
-0.021997703287158214 -0.2641820595522441 0.03561516614206201
0.06915089783569377 0.177291669424454 -0.270388762453689
0.252328605039135 -0.08991884639193488 -0.26249530772652907
-0.1286775660753271 0.03974037264057123 -0.2722939080857562
0.045097040725517096 -0.020679485458651066 0.11631598088833822
0.2571145515176208 -0.040607118489436704 -0.2351827800237618
0.14303128313193328 -0.10254954643112736 -0.11860638355596598
0.08687162322893768 -0.07971243748084031 0.14475118461167727
-0.15003266911783725 -0.05326189912808337 -0.0073151479690843815
0.09348932936311885 0.0036994930894115674 -0.028212937630207803
0.12654021154341613 0.04697047732330321 -0.1163665573163391
-0.017672243756174807 0.11908453214718419 0.07023744215001133
-0.17665059352793686 0.014333133271400485 0.02816305336706243
-0.1613955220966252 0.016655146374940526 0.031596473781675696
0.12795817832663767 0.12362149255374778 -0.06544208510519661
0.12366104429945338 -0.056890736460941664 0.10115155628090014
0.13396350706015553 -0.06688617310244006 -0.1154401603159932
0.12432359273801835 -0.19809223676002624 -0.2618925658558332
-0.011877314077172444 -0.25166451087093133 0.18929101649879573
0.13894215161157566 -0.05584859763079388 0.022069668898686255
-0.0456184576984044 -0.08347928569531994 -0.2035730231583699
0.24194402358341677 -0.06554489291280689 -0.17510100914810225
0.1790202754496379 0.06918369969747398 -0.24867399099976767
-0.17080535447715647 -0.15768561101032214 0.08475614678984451
-0.0015609914601263358 0.021009537227840644 0.10517934995608694
0.09932947712414363 0.08761131768955865 -0.2715842012377899
-0.01239262784363765 0.23839462114283105 -0.27014941700571016
0.19386774182346392 -0.09984457616773966 -0.17958657644278103
0.13808782415924833 -0.06617121343858963 -0.1384852504645213
-0.13832861245280315 -0.06317216569128979 0.2283220143832235
0.11369651233901966 -0.14279157341999354 0.12406700493652012
0.13963729890738139 -0.16249303570324 -0.06227652737475152
-0.20556367830232936 -0.040525145957404675 0.10396049379275868
0.2065005652250058 -0.18722514452498876 -0.250110278700976
0.1592847092459405 -0.1283020727425098 0.02711218413513246
-0.07011363410936747 -0.1827595868135408 0.02019349246541702
0.06656773897694047 0.2145841707153344 -0.015393787898810754
-0.17211751036116188 -0.04007323501378413 -0.019951256490992757
0.05615689602160969 0.1762935868900833 -0.27116071572048606
-0.15736452121011021 0.20398627192513474 -0.24536507892582468
-0.09722020096117122 0.20768114972203772 0.014962660459035625
0.08381356171849029 -0.03435036204644537 -0.005055451339015133
-0.1660986391445117 -0.15375025681716753 0.11651607439285902
0.22238485431911156 0.010332231499219625 -0.24768954421598047
0.06441929215164732 -0.05196193497381164 -0.15526042484012467
0.045425492482699885 -0.23553180747657224 0.09207815496292328
-0.013234830962210476 0.26615594471906234 -0.04142823163533297
-0.056111272587137676 -0.28396041296852864 0.15954391226118034
0.04220948612917859 0.02318452998805848 0.060762565652619706
0.25027014079126464 -0.09352101259044027 -0.26354239070575286
-0.07111537615703936 -0.13169200789888666 -0.11551314244071383
-0.23082204203111623 -0.13524421849785417 -0.24287526038132154
-0.04004205101206596 -0.17556496463240173 -0.27253972481369604
0.015281004305108644 0.26940205688284896 -0.2472956254085247
-0.25624934922882764 -0.11448801936572477 -0.04544984463851354
0.2412316354297973 -0.10772469992962071 -0.26482969355077607
0.12481596917414757 -0.1532441552700976 0.040718761920977425
0.15813639255590892 0.10154750118975096 -0.23602172718911352
-0.20752822318687572 0.011711121521048362 -0.1290470540545647
-0.08001178602167222 -0.2918588005012823 0.12698625019727056
-0.16700843361244724 -0.036510297918687755 -0.2700477222381288
-0.07815706703359543 0.2818342943384126 -0.20857517925404173
0.06640751731940672 0.2363162458774184 -0.04817766118663717
-0.04526518951177468 -0.13889046680079767 -0.18919002529830745
0.02695674387683151 0.24227764864342072 -0.2565476888261513
0.14596547073362515 -0.13624784578666815 0.08933802705993743
-0.19257075090416786 0.04442226138470308 -0.25465518285371885
-0.0876424922087094 -0.1165310330877469 -0.15125856246585997
0.20709768857963673 -0.09294751981617426 -0.26503403772278167
0.10456868242027675 -0.11055473430783318 -0.03990058796886073
0.24522528699663246 -0.06657167092280647 -0.17653016042457484
-0.19275104047657213 0.16560319456498993 -0.11579427852344304
0.16489247086800518 -0.08573048937797789 -0.05616381879075904
-0.1184426524111795 0.16101416021096981 -0.27125094884403766
0.20981093909063603 0.03421289915758161 -0.23797333574292456
0.14357443371473427 0.14315502281294573 -0.1734318045450658
0.10696659001933265 0.029112181412078286 -0.0901941881111097
-0.09823597113615375 -0.020064308302376786 0.22450049919515871
-0.12001217389264257 -0.2506061393923922 0.12730672038636837
0.2451784217196613 -0.0471582722013109 -0.2610086202288514
0.13149730121739114 0.08514260135154082 -0.2690983592267401
-0.08741337459392164 0.25750674963357073 -0.055929524504620694
-0.10986066217057898 -0.10049462613602672 -0.2751464486353134
0.021459510177850534 -0.2634626870854755 0.06313781187924794
0.15161585265690686 -0.10124491653429507 -0.13836896677448088
0.07495179174854069 -0.09950011726862298 0.0945456351107529
-0.0961227694938815 0.26404412913889236 -0.17283651815704737
0.015821609170540592 -0.2275322064570899 0.1904757686723392
-0.09723711070581019 -0.04594578447960262 0.24803653632022807
-0.09502337610962885 -0.09682397632746946 0.26787041168302467
0.03544849529506427 0.04124381936130837 -0.2722849730175676
0.10025673165896364 -0.14770212908601685 -0.08320331671279423
-0.09154395769403155 -0.11703344253525667 -0.15548834838751247
-0.2119398819087217 -0.05269703289062148 0.09998411702964244
-0.07704653889650302 -0.09713101333748587 -0.27576821643709726
-0.1782119832700971 0.013773086835520964 0.027379087140531614
-0.16631932186210582 -0.11477968608411776 0.1721124442493832
-0.03100192283407515 -0.14223248078998485 -0.25174322021375817
0.15298442961677733 -0.18508150808269938 -0.01487290467017744
0.15005085722431377 -0.18849369937395322 -0.18578154145183315
-0.14977801646441294 -0.15287748808570897 -0.06568419449873339
-0.11920548107785266 -0.035572645834284565 -0.27317046792789035
0.03933373250606707 0.05383956504022827 -0.2734082496474018
-0.11885125598322058 -0.14904462708667635 0.22316446235673462
0.04638003705560815 -0.02022924799235526 -0.23740645671123725
-0.0675899965240028 -0.07590526365341509 -0.17022495130399257
0.09691839559636266 0.03150667342953023 -0.030132413215014118
-0.1467776838360532 0.0028402923282413004 0.004086212079185933
-0.22995756231456896 -0.13324521881811083 -0.15856986288105404
-0.019860538591523546 -0.2760896464053509 0.16147135315280836
-0.21614712841301217 0.08218542594976572 -0.16057265005481064
-0.12493486300118532 0.10058358803213185 0.043731916626442685
-0.07227728428431049 0.21161278239629872 -0.2717190360172304
-0.16204762025490504 -0.06012789806866239 -0.1488340398650428
0.12449528980665216 -0.09016002463371102 -0.06884536993052623
0.07140713987708641 -0.13380612764621133 -0.030073373681661724
-0.14438845371765288 -0.00043474717688465154 -0.27193135902532256
0.2789341563963497 -0.08487208594286082 -0.22449167001372966
0.04948927495622205 0.16622462457354828 0.029827731213522394
0.16695647986838927 -0.1644360219152458 -0.11498685238564339
-0.12061608140707665 -0.17256094609259715 -0.13212330596635144
0.111767838492406 -0.09813359929782575 -0.04114071998244499
0.13264311090922073 -0.16391081476866534 0.0021011017557960735
0.0409082342955873 -0.06527701428470649 -0.2006932224084236
-0.024547372217908828 0.16333894954128797 0.058983108184684926
-0.14196617696498356 0.15288101700496093 0.017808757045417366
-0.19949851931323428 -0.11689973742839325 0.07318806654948838
-0.18508163203061873 0.16982037551072612 -0.06658671021267223
-0.2222053847580976 -0.011623219899644266 -0.14196908357945254
-0.2047201943901676 0.09229747142231368 -0.2277719749087206
0.03359420781543737 -0.10405477443384184 0.2636195527393689
0.10944438754269364 -0.07796227998142853 -0.027953556887260013
-0.024693463175074516 0.3038676957413575 -0.21041815768106734
-0.13518373676546422 -0.18095404398694412 0.15128042916722292
0.03414123755736365 -0.161380088508811 0.24121488897272592
-0.22196303732940809 -0.10873457215286973 -0.18698383444713934
-0.20626163351060653 -0.06222346836061857 -0.08239834626707396
-0.13136936856452638 -0.05424293650915183 -0.14533204762494792
-0.1895106861866196 0.02359287442823397 -0.25858795308405064
-0.11854560916059381 0.05219588131916331 0.05034290405621362
0.12594101163805335 -0.08153988096065179 0.1302327437158413
0.1652360493976503 -0.1107432652701799 -0.026007704707374932
0.13005203276080038 0.1817836151267561 -0.11404580820402901
-0.14703420599697076 -0.10037519369261894 0.07692790784628113
-0.1713721902217759 0.14931364650552525 -0.2632241352551455
0.09913168747329573 -0.06342339469798507 0.1913935616893505
-0.05706880468520111 -0.2233377108864111 0.026563372541336068
0.08886092983956864 0.14739421597731764 0.006384990404501248
0.12853278679945043 -0.11468473820297535 -0.052586893839980324
-0.19650916062834306 -0.22150872427070756 -0.2666869040060291
0.1387998694657874 -0.11713821504867016 0.11617934060691777
-0.17878704639941054 0.010597954551902817 0.05328454806687179
-0.08596860207260638 -0.29059872650252444 0.08466974642691166
0.07247142320474725 0.2404193782833163 -0.18802802194058466
-0.008480361058677756 -0.09832211761263575 -0.17698134516411984
0.07996996235495488 0.024297252525567463 -0.2703814757882563
0.07882432974691272 -0.1454907662245242 0.20304850286966689
-0.04995671891718054 0.30051192534860377 -0.20094418565813674
-0.1354008724964861 -0.12869874476778564 0.17807187121972076
0.16136182767313667 0.07960318623236692 -0.15065056238741986
-0.001761517090827246 -0.038974632693493834 -0.25750063501314374
-0.22996927330157088 -0.14147724987592705 -0.2512496084949619
-0.024529752953343233 0.13321267042755836 -0.2768346260530315
0.06074969038137466 0.22651960789043407 -0.024137539927968448
0.1948446333022718 -0.11049781856325304 -0.24213762688405113
-0.16310308547380617 -0.18031115249415428 0.08190674278599257
0.007513460725413704 -0.08081203693358278 0.2672212960942182
0.15234035000005386 0.07634203447122996 -0.13819652121708462
-0.12080819287608363 -0.26289347012161457 0.10840487983172388
0.14804698864751795 -0.10654675746230402 -0.12940313837601639
-0.1578453834152867 -0.11787233839292346 0.19819842205812407
-0.13752404832114937 0.0005935518017041834 0.03310058589745221
0.06753106196974965 0.12678721335148266 -0.27234065079815106
0.15275087837836737 -0.15890462791873522 0.060432716806292974
-0.13108287720891126 -0.24638354174112395 0.09251488867397757
0.16810647883898275 -0.15233457277877802 -0.009239680413986422
0.029653013795940313 0.039342242791702474 0.06532132933091454
0.13963338150342422 -0.17361557678058684 0.04597935469693989
0.08330124349256256 -0.09194117684672354 0.16408365457289276
-0.11942274394684978 -0.16310674197677044 0.19959534090377395
0.13010671225363224 -0.1599247948155317 0.010539379653263344
0.11965125373216713 -0.034233292460872 -0.07210843841179544
-0.05189068826384367 -0.21560368732972657 0.240037766924303
-0.1984025070727381 -0.014902215650414257 0.07773362126190017
0.028642858536066546 0.06695100690173243 0.059884698129676235
0.10743916281713986 -0.08899608599194168 -0.02498623807849536
-0.16043077975022169 -0.072227668239255 -0.16020520798386162
0.09083707551814535 0.12367470899847866 -0.2699779586959846
-0.15508126835113398 -0.018479086635813484 -0.031474077679388944
0.16641445114239184 -0.12273402752006642 -0.024653729381735424
-0.15487131435315968 -0.03960511755377811 -0.12508145059835132
-0.18205676675470153 0.008877544533778776 -0.07952094419121165
-0.10144612481970229 -0.1924574955611704 -0.18980050860305922
0.15370104959858666 -0.20898385335391195 -0.25827225864355197
-0.06857466475909726 0.1518289589397594 -0.2750665022073142
-0.07199350669809061 0.0848240711240918 -0.27653890883475185
0.154539403922205 -0.1409902305735426 -0.1259925907297298
0.04521347482113564 -0.10379068432890828 0.25786105682383814
0.2125292416265182 -0.12700077733532564 -0.2447460963642326
-0.07493576994006651 -0.14900825396142908 0.26605810564737487
-0.028254043616806394 -0.11434772777967032 -0.1336442275157625
-0.08233206478622687 0.22353666425757435 0.008308227930295339
0.20882212719574827 -0.0019173512314406972 -0.27087591767540026
-0.0631721576274498 0.06853428582766116 0.07429787056136325
-0.09789017214495105 0.22481358518597677 -0.003317060092524363
-0.24123790319421703 -0.1341211328448691 -0.18222781841342378
0.153830916667586 -0.1291181578604505 0.05581927522716261
-0.14494504330689698 0.0502520865017702 0.023072921801979316
-0.14205636043499237 -0.09594994569080806 0.15168752078476805
0.1601700368514986 -0.16376283047722637 0.03566287430512539
0.23682382122035947 -0.14316780625609765 -0.24381305941513612
-0.14912949573668122 -0.14967815803783535 0.044709725278153825
0.13176200251041434 -0.08480438874128395 -0.23949475565632988
-0.019162593491577822 -0.061122988188841765 -0.2430734299396187
0.07571560314414354 0.1651608649123416 0.012292824179481287
0.1800019815837359 0.02987914717719567 -0.1649426810948928
0.02754783288290022 -0.0475430218379151 -0.2393986856530813
-0.2297252365549094 -0.03738499991068772 -0.1450613284281749
-0.11127776314677332 0.2512616914871229 -0.2280709087037945
0.11603102443359957 -0.07285762995120203 0.15585695145285502
-0.10001480802856463 0.1915229759036116 0.025930512845408062
-0.23056596397032936 -0.08863105493621773 -0.120451717585884
-0.14976791431049893 -0.09445569403533713 0.2214017370902908
0.10737315571450207 0.05152438124703447 -0.05417343259970981
-0.09273879990984968 -0.19277200186460666 0.02964439258665317
-0.17683382496731678 -0.05280464095574294 0.008109248691459476
-0.07647378761302492 0.22518847598202757 -0.2693999265570132
-0.2074480631933773 0.0806683338648384 -0.22687071410047677
0.11782609509429581 -0.02933528742916477 -0.014021046352891309
0.1185929688932555 -0.14353428017286488 -0.09399280261239296
0.19805604382402936 0.040464194030459415 -0.25406673932787843
-0.027323110700160767 -0.1809537331458283 -0.2589021443337917
-0.22469331304249848 -0.0580398821657905 0.05912838627529049
0.08054166673506385 -0.1633344422546303 -0.1153327707286454
-0.07844879979733202 -0.20978689978938223 0.2345334760382806
0.009581267803831128 0.11720300252433109 -0.2767541923861367
0.10193349599763218 -0.107436909648073 -0.03155075256336126
-0.17066419201325195 0.11031088933488734 -0.006530739926286728
0.040088634878537074 -0.1272442485054177 0.25935328966483706
0.10625549070207947 -0.028984325081380966 -0.0863239435038356
-0.05235929824433787 0.08810039675591598 -0.2771437801306358
0.06203269681055601 -0.1265450515866013 -0.19405146281050184
-0.11421359830301367 -0.208536183517762 -0.2337577641862564
0.09903930090142293 0.05886904366345141 -0.02386251620295839
-0.09323537184522014 0.001336203671454112 0.14450385793733456
-0.199895023933118 0.12679756302094455 -0.21199526311832045
-0.09582021794322487 -0.00392888356638989 -0.2683984231674133
-0.061993339159460634 0.16964184461812992 0.05394922157193434
0.024427338421915714 -0.05210060059993929 0.24351146702244317
0.16181796102773013 -0.09642280085531747 -0.01801774079586834
0.0051613965196638315 0.2920171330264454 -0.1376336169531108
-0.21835490359044635 -0.11967057106967449 -0.03290638041938949
0.12568849697998188 -0.09380477333207034 -0.06368287158325481
